ply
format ascii 1.0
element vertex 152
property float x
property float y
property float z
end_header
-0.0173205 -0.0173205 -0.0173205
-0.0173205 -0.0173205 0.189608
-0.0173205 -0.0173205 0.396536
-0.0173205 -0.0173205 0.603464
-0.0173205 -0.0173205 0.810392
-0.0173205 -0.0173205 1.01732
-0.0173205 0.189608 -0.0173205
-0.0173205 0.189608 0.189608
-0.0173205 0.189608 0.396536
-0.0173205 0.189608 0.603464
-0.0173205 0.189608 0.810392
-0.0173205 0.189608 1.01732
-0.0173205 0.396536 -0.0173205
-0.0173205 0.396536 0.189608
-0.0173205 0.396536 0.396536
-0.0173205 0.396536 0.603464
-0.0173205 0.396536 0.810392
-0.0173205 0.396536 1.01732
-0.0173205 0.603464 -0.0173205
-0.0173205 0.603464 0.189608
-0.0173205 0.603464 0.396536
-0.0173205 0.603464 0.603464
-0.0173205 0.603464 0.810392
-0.0173205 0.603464 1.01732
-0.0173205 0.810392 -0.0173205
-0.0173205 0.810392 0.189608
-0.0173205 0.810392 0.396536
-0.0173205 0.810392 0.603464
-0.0173205 0.810392 0.810392
-0.0173205 0.810392 1.01732
-0.0173205 1.01732 -0.0173205
-0.0173205 1.01732 0.189608
-0.0173205 1.01732 0.396536
-0.0173205 1.01732 0.603464
-0.0173205 1.01732 0.810392
-0.0173205 1.01732 1.01732
0.189608 -0.0173205 -0.0173205
0.189608 -0.0173205 0.189608
0.189608 -0.0173205 0.396536
0.189608 -0.0173205 0.603464
0.189608 -0.0173205 0.810392
0.189608 -0.0173205 1.01732
0.189608 0.189608 -0.0173205
0.189608 0.189608 1.01732
0.189608 0.396536 -0.0173205
0.189608 0.396536 1.01732
0.189608 0.603464 -0.0173205
0.189608 0.603464 1.01732
0.189608 0.810392 -0.0173205
0.189608 0.810392 1.01732
0.189608 1.01732 -0.0173205
0.189608 1.01732 0.189608
0.189608 1.01732 0.396536
0.189608 1.01732 0.603464
0.189608 1.01732 0.810392
0.189608 1.01732 1.01732
0.396536 -0.0173205 -0.0173205
0.396536 -0.0173205 0.189608
0.396536 -0.0173205 0.396536
0.396536 -0.0173205 0.603464
0.396536 -0.0173205 0.810392
0.396536 -0.0173205 1.01732
0.396536 0.189608 -0.0173205
0.396536 0.189608 1.01732
0.396536 0.396536 -0.0173205
0.396536 0.396536 1.01732
0.396536 0.603464 -0.0173205
0.396536 0.603464 1.01732
0.396536 0.810392 -0.0173205
0.396536 0.810392 1.01732
0.396536 1.01732 -0.0173205
0.396536 1.01732 0.189608
0.396536 1.01732 0.396536
0.396536 1.01732 0.603464
0.396536 1.01732 0.810392
0.396536 1.01732 1.01732
0.603464 -0.0173205 -0.0173205
0.603464 -0.0173205 0.189608
0.603464 -0.0173205 0.396536
0.603464 -0.0173205 0.603464
0.603464 -0.0173205 0.810392
0.603464 -0.0173205 1.01732
0.603464 0.189608 -0.0173205
0.603464 0.189608 1.01732
0.603464 0.396536 -0.0173205
0.603464 0.396536 1.01732
0.603464 0.603464 -0.0173205
0.603464 0.603464 1.01732
0.603464 0.810392 -0.0173205
0.603464 0.810392 1.01732
0.603464 1.01732 -0.0173205
0.603464 1.01732 0.189608
0.603464 1.01732 0.396536
0.603464 1.01732 0.603464
0.603464 1.01732 0.810392
0.603464 1.01732 1.01732
0.810392 -0.0173205 -0.0173205
0.810392 -0.0173205 0.189608
0.810392 -0.0173205 0.396536
0.810392 -0.0173205 0.603464
0.810392 -0.0173205 0.810392
0.810392 -0.0173205 1.01732
0.810392 0.189608 -0.0173205
0.810392 0.189608 1.01732
0.810392 0.396536 -0.0173205
0.810392 0.396536 1.01732
0.810392 0.603464 -0.0173205
0.810392 0.603464 1.01732
0.810392 0.810392 -0.0173205
0.810392 0.810392 1.01732
0.810392 1.01732 -0.0173205
0.810392 1.01732 0.189608
0.810392 1.01732 0.396536
0.810392 1.01732 0.603464
0.810392 1.01732 0.810392
0.810392 1.01732 1.01732
1.01732 -0.0173205 -0.0173205
1.01732 -0.0173205 0.189608
1.01732 -0.0173205 0.396536
1.01732 -0.0173205 0.603464
1.01732 -0.0173205 0.810392
1.01732 -0.0173205 1.01732
1.01732 0.189608 -0.0173205
1.01732 0.189608 0.189608
1.01732 0.189608 0.396536
1.01732 0.189608 0.603464
1.01732 0.189608 0.810392
1.01732 0.189608 1.01732
1.01732 0.396536 -0.0173205
1.01732 0.396536 0.189608
1.01732 0.396536 0.396536
1.01732 0.396536 0.603464
1.01732 0.396536 0.810392
1.01732 0.396536 1.01732
1.01732 0.603464 -0.0173205
1.01732 0.603464 0.189608
1.01732 0.603464 0.396536
1.01732 0.603464 0.603464
1.01732 0.603464 0.810392
1.01732 0.603464 1.01732
1.01732 0.810392 -0.0173205
1.01732 0.810392 0.189608
1.01732 0.810392 0.396536
1.01732 0.810392 0.603464
1.01732 0.810392 0.810392
1.01732 0.810392 1.01732
1.01732 1.01732 -0.0173205
1.01732 1.01732 0.189608
1.01732 1.01732 0.396536
1.01732 1.01732 0.603464
1.01732 1.01732 0.810392
1.01732 1.01732 1.01732
